ply
format ascii 1.0
element vertex 1315
property float x
property float y
property float z
property uchar red
property uchar green
property uchar blue
end_header
-0.399121 1.90941 7.8551 154 126 122
-0.833424 4.46482 7.95931 129 131 118
-0.424183 2.00475 7.90541 168 160 148
0.407827 3.48349 8.11986 106 112 108
0.193749 2.09265 8.03294 248 218 197
0.514618 2.29371 8.06618 185 170 163
-0.663626 2.92137 8.05295 161 138 134
0.491935 1.69017 7.9342 126 130 116
1.52121 4.58913 7.6823 84 97 93
2.14867 2.07338 7.89214 66 74 86
-1.21007 4.71045 7.67485 159 148 135
-0.11179 1.96762 7.92172 101 107 102
0.47454 3.48228 8.1332 106 115 106
-1.75424 2.95237 6.71515 105 109 103
-1.00456 1.55983 7.28012 126 112 107
-0.327217 1.34789 7.67618 105 112 105
-0.405692 1.95391 7.9001 111 117 110
-0.750484 1.98201 7.68217 145 122 118
0.631615 1.94409 8.02642 98 103 103
0.476932 1.72977 7.94069 174 139 127
-0.927117 1.4231 7.34442 106 110 102
-0.927117 1.4231 7.34442 106 110 102
-1.45051 4.0274 7.2849 116 119 110
0.858417 2.82624 8.08419 205 194 193
1.19366 3.70549 7.96973 91 103 95
-0.26451 1.60539 7.79355 103 113 107
-0.824419 2.55583 7.61155 121 122 111
-0.972321 1.62235 7.31566 115 117 107
0.823439 2.93402 8.0732 206 195 193
0.85753 2.86439 8.08424 108 113 109
2.05764 1.79834 7.67166 75 78 87
1.0196 4.69007 7.92059 95 102 100
1.6413 4.26418 7.82267 117 121 101
0.438116 4.49263 8.11809 111 116 110
1.08871 2.7444 8.08256 108 113 112
1.71387 4.29358 7.82124 140 115 106
-0.389676 1.4051 7.66943 177 142 126
1.61727 4.0357 7.82883 94 103 97
-1.0814 3.43178 7.47351 119 125 113
-0.030832 1.84811 7.88937 133 133 129
-0.970084 2.11531 7.30709 112 115 103
-0.972788 2.11214 7.32366 112 116 105
-0.0190722 1.80385 7.86892 184 150 139
-0.32517 2.02253 7.93292 134 108 107
-0.510565 2.63877 8.06497 137 138 135
1.59708 3.45556 7.89688 85 95 90
-0.639135 1.30759 7.55494 98 100 95
0.530689 5.26621 8.19006 139 138 133
1.7419 4.74221 7.55986 72 83 83
1.97434 2.08424 8.03424 223 215 211
0.610647 3.79775 8.09603 80 90 96
-0.609409 1.86257 7.74914 104 111 98
-0.662957 1.70026 7.66571 184 155 142
-1.18418 4.39047 7.65021 205 180 164
0.156065 1.86062 7.9418 185 154 143
-0.535523 1.83818 7.7689 178 149 134
1.86191 2.02364 8.04057 94 99 106
-0.0125252 1.49512 7.78712 100 105 101
-0.0138261 1.49538 7.78614 101 109 105
-0.0673455 1.62159 7.82783 104 111 105
2.00909 4.57682 7.62011 150 119 106
-0.789932 1.53774 7.48804 186 145 127
-0.791287 1.53694 7.49032 184 146 130
-0.448187 1.541 7.69394 100 108 99
0.513498 4.19111 8.12897 103 107 107
-0.1978 1.2645 7.63242 158 121 112
0.271024 1.69445 7.85678 99 103 102
0.201763 2.28249 8.03973 221 203 200
0.201763 2.28249 8.03973 221 203 200
-0.702023 2.05756 7.78572 140 124 116
1.91357 4.36142 7.75257 73 86 83
1.91357 4.36142 7.75257 73 86 83
1.4118 2.79951 7.93252 88 96 94
1.92616 1.27588 7.64765 103 109 102
-1.77841 3.59698 7.00582 203 182 177
-0.76535 1.85012 7.63138 178 147 134
-0.655392 4.92269 8.15472 142 143 132
-0.640654 1.7864 7.71033 149 123 117
-0.424222 1.66584 7.76965 100 108 104
2.28458 3.56623 7.62801 82 92 89
-1.26026 5.01328 7.70536 208 186 178
-1.26026 5.01328 7.70536 208 186 178
-1.13458 5.01399 7.79642 150 130 124
-0.0022283 1.74626 7.8717 174 143 134
1.12936 3.27108 8.00158 117 124 109
2.32189 0.987735 7.4998 174 156 150
2.08788 2.03161 7.89913 70 75 87
-0.0560832 1.40532 7.69668 91 93 98
0.552963 2.04281 8.03851 108 115 108
-1.00709 5.27636 7.90381 220 199 190
-1.00709 5.27636 7.90381 220 199 190
1.70474 1.61669 8.01238 119 117 116
-1.21627 3.65568 7.42965 129 126 120
0.559975 1.81695 8.00058 111 119 113
-0.473861 2.11338 7.91817 116 125 107
-0.507318 1.34892 7.61505 91 93 94
-0.347297 1.27754 7.59114 97 102 98
1.99541 3.11305 7.68867 76 86 89
-1.0398 4.6585 7.75886 134 130 125
-0.875879 4.85131 7.8993 119 119 115
1.55089 2.92377 7.85693 80 90 91
-1.10868 3.27712 7.34902 158 128 119
0.596611 2.02926 8.03114 107 115 108
-0.988571 2.22011 7.28471 112 118 107
-0.217349 1.58246 7.77678 146 130 115
-1.01274 1.49929 7.26881 106 112 102
-1.01447 1.49612 7.27986 107 113 103
-1.05738 4.53383 7.747 186 165 151
0.0815236 2.42401 8.05778 207 186 184
0.88386 3.56353 8.01183 157 140 135
-0.998472 3.94156 7.60075 186 166 157
0.165258 1.54171 7.79832 93 99 99
-0.129357 1.92927 7.91657 167 137 126
1.0977 4.33531 7.87821 91 99 99
0.00730733 1.79142 7.87592 135 112 113
-0.852418 2.26257 7.55928 161 148 139
-0.436534 1.7348 7.75542 99 106 100
0.24894 2.05113 8.04463 142 143 137
0.317163 1.50514 7.76786 102 108 103
-0.760026 1.51619 7.51419 120 113 104
-0.521626 1.60212 7.72167 110 115 106
2.10316 1.96452 7.80379 72 83 87
-0.362779 1.72734 7.77535 99 104 99
0.543632 2.37787 8.02588 198 186 181
0.171 1.39333 7.65865 152 126 115
0.458997 1.34832 7.9028 158 122 116
0.489535 4.04674 8.13638 113 122 106
-0.688341 2.32231 7.89365 170 147 139
-0.684593 2.32408 7.87969 165 142 133
-1.02626 4.84773 7.81744 119 121 115
0.183581 1.68439 7.87707 109 112 105
-0.326929 1.75351 7.79635 104 109 103
-0.326766 1.75356 7.79603 103 108 101
-0.2231 1.27206 7.6262 98 98 95
-0.223798 1.27205 7.62652 97 97 95
-0.275055 1.68626 7.81392 101 104 101
-0.292 1.25524 7.59691 108 114 106
0.277763 2.48053 8.05473 213 199 194
-0.800817 5.13285 8.04549 190 176 167
-0.899357 1.38524 7.38245 165 131 122
-0.0760888 2.35428 8.05514 172 156 154
0.190132 1.65548 7.86625 176 143 130
0.190132 1.65548 7.86625 176 143 130
0.538648 1.99248 8.03249 103 111 104
1.68126 3.60123 7.88259 70 75 83
0.106782 1.85644 7.8757 159 136 132
-0.0216985 1.86344 7.87405 97 98 100
-1.10966 3.40133 7.41435 120 118 113
0.360437 5.39109 8.1687 101 100 103
0.215463 1.42811 7.70836 108 112 101
0.580504 2.41696 8.03683 206 197 192
2.29222 2.18605 7.76403 68 78 84
2.29222 2.18605 7.76403 68 78 84
0.269346 2.45702 8.04822 185 170 166
0.115496 2.61726 8.04827 179 171 166
1.54148 2.21382 7.98669 237 230 228
-0.543406 1.67695 7.71482 158 131 127
-0.0734279 1.92562 7.91236 163 137 126
0.597226 1.81985 8.01665 106 114 107
-0.587426 2.98676 8.08739 161 155 148
-0.87769 4.51887 7.92978 134 134 124
-0.400862 2.20412 7.98952 176 158 147
-0.400862 2.20412 7.98952 176 158 147
0.422754 4.82117 8.17339 99 112 103
-0.848311 2.0773 7.5066 114 113 109
-0.664022 3.14285 8.02617 205 174 162
-1.08365 3.70197 7.54845 138 119 114
-1.13137 4.05134 7.54622 126 132 118
-0.394837 1.75805 7.7791 99 106 100
-0.625051 4.76133 8.16219 126 131 119
1.60949 4.91044 7.61206 71 81 82
1.71636 1.39504 8.02611 205 194 195
0.00789509 1.84937 7.89401 185 168 164
-1.32062 3.20381 7.16611 150 126 120
-0.774466 5.22645 8.09555 170 151 143
2.01717 1.62871 7.62081 115 123 106
-0.458566 1.91945 7.85389 101 106 101
-0.903362 3.82 7.74613 163 165 140
1.6804 4.70096 7.6112 64 77 81
1.75412 2.66835 7.8375 83 85 94
-0.624763 1.61983 7.65213 129 121 112
1.93702 2.03152 8.02169 79 83 95
1.06209 4.01414 7.95452 111 123 100
1.78887 1.81191 7.84278 87 87 97
0.440862 1.62943 7.90352 146 116 115
-0.657 2.39129 7.93128 151 125 119
-1.3055 1.60413 7.00625 122 117 107
1.37074 3.92904 7.94193 126 119 113
-0.799619 1.55596 7.54188 148 121 114
-0.374535 1.70338 7.75085 141 116 110
-0.374801 1.70318 7.75268 140 116 109
-0.633852 1.80996 7.74278 130 125 112
1.71459 2.12729 8.04883 202 192 191
0.268452 4.65752 8.15823 161 158 157
-1.11096 3.65118 7.62565 139 131 124
-0.725105 3.78825 8.07571 129 128 121
0.92874 4.11213 8.04632 72 83 87
0.928808 4.1119 8.04374 69 80 85
-1.23763 1.58118 7.09588 182 163 153
-0.520846 1.45059 7.62505 176 142 128
1.0416 4.10505 7.95797 122 128 107
1.0416 4.10505 7.95797 122 128 107
0.401544 1.23187 7.84093 137 126 118
0.401616 1.23195 7.8408 135 123 114
0.120866 1.89889 7.93498 107 111 102
0.223736 4.20659 8.14526 160 156 152
-1.03804 4.5569 7.75613 137 139 125
1.56213 2.28657 8.06047 236 227 222
-0.944036 1.65012 7.33362 141 141 124
-0.107576 1.85331 7.89109 143 130 124
1.97489 1.7911 7.66864 75 78 89
1.97489 1.7911 7.66864 75 78 89
-1.92557 3.53841 6.85698 136 115 109
0.52628 1.74125 7.95941 128 127 118
0.52628 1.74125 7.95941 128 127 118
0.212041 1.89014 7.98147 97 101 101
1.68253 1.77684 8.08674 239 233 233
-0.234644 1.51338 7.73973 109 111 106
-0.99541 4.1519 7.70841 118 120 112
-0.529762 1.30639 7.59733 88 89 95
1.03573 3.92455 7.9328 79 89 89
-0.643496 2.33848 7.92713 130 118 111
-1.51585 1.68909 6.79245 154 138 125
0.248575 1.32277 7.66695 103 104 100
0.260723 1.99503 8.02344 113 120 111
0.191548 1.59475 7.81623 97 103 101
-0.29583 1.97768 7.91072 171 156 140
-1.47209 1.73836 6.75121 135 150 107
-0.558824 2.85377 8.07188 182 164 157
-1.27321 2.17675 6.98741 110 112 99
-1.27276 2.1768 6.98741 112 116 104
0.237823 1.81986 7.94819 87 93 95
-0.893602 2.51863 7.41935 116 118 106
-0.0578745 1.77385 7.87246 167 137 131
0.659701 3.19026 8.10036 170 154 138
1.91541 3.50318 7.77964 74 85 82
-0.738287 1.80919 7.58068 139 147 119
-0.738287 1.80919 7.58068 139 147 119
-0.932007 1.86548 7.34543 107 115 100
-0.934048 1.86423 7.3526 100 108 95
-0.535606 1.33069 7.59689 163 124 118
-0.635563 2.06112 7.81493 201 172 157
-0.866373 1.49505 7.40636 143 140 119
-1.55538 1.5913 6.77716 190 170 160
-1.55545 1.59099 6.77865 192 171 161
0.477305 1.67401 7.92336 126 127 111
1.1823 2.72083 8.09529 106 111 109
0.620726 4.34032 8.0479 141 129 113
1.78745 4.23518 7.81694 73 82 82
0.131498 1.6408 7.85293 104 104 100
-1.34962 3.07306 7.10763 147 125 119
-0.724516 1.94372 7.70967 177 147 133
0.529472 1.63718 7.96437 192 149 138
2.21896 1.64236 7.54996 113 124 102
0.486128 4.10861 8.12976 169 155 154
-0.89618 1.67854 7.36843 143 137 125
-0.897208 1.67716 7.37592 147 141 129
0.834103 2.97599 8.10591 95 101 103
1.21967 2.67753 8.08419 92 96 101
2.08171 3.79688 7.68962 110 111 97
2.08171 3.79688 7.68962 110 111 97
-0.583531 2.21762 7.89129 157 134 127
-0.0613335 1.41943 7.74782 131 121 113
0.290551 1.90472 7.98871 88 88 93
-0.533336 1.3867 7.60155 118 113 106
-0.882744 1.39898 7.39174 116 120 104
0.607227 1.86375 8.02297 135 139 122
-0.705322 5.21879 8.16475 186 166 156
-0.930566 3.72402 7.7421 165 144 134
-0.892225 2.08802 7.45333 159 143 134
-0.16238 1.51977 7.75792 104 113 102
-1.25879 2.46851 7.03381 109 111 102
0.341403 1.33745 7.79811 193 158 137
-1.47602 3.6412 7.24047 184 164 154
-0.634187 1.98875 7.78037 167 148 134
-0.659794 4.79683 8.13699 115 118 111
-0.387105 1.68017 7.75294 101 105 99
-0.386929 1.68057 7.7498 102 106 100
0.594825 1.59507 7.9836 115 116 109
-0.28862 1.51195 7.75002 108 113 102
-1.20111 2.11314 7.09534 117 118 106
-0.876708 1.66577 7.39755 111 112 98
-1.01682 5.30026 7.88653 169 140 134
-1.01214 3.91301 7.58412 131 131 119
0.327406 1.21198 7.77788 165 127 119
-1.06338 1.39693 7.19931 146 134 115
1.46571 4.37195 7.7876 73 83 83
0.22443 4.83565 8.16378 97 100 102
1.40282 4.89818 7.7214 169 143 128
0.421516 1.78066 7.92066 162 131 122
0.743855 3.01098 8.06928 109 113 109
-1.09188 3.75325 7.48312 163 167 143
-1.38033 3.65303 7.31618 172 151 143
-0.42775 1.77618 7.76826 102 106 100
-0.806892 1.33479 7.44996 137 141 119
-0.259368 2.03492 7.94986 107 111 104
-0.586133 1.94411 7.78806 120 125 111
0.66204 3.14189 8.08464 159 153 153
2.57119 1.64149 7.41287 85 102 90
-0.685435 1.69712 7.65982 150 117 111
-1.02438 1.77807 7.21701 132 140 113
-1.02502 1.77753 7.22051 134 142 114
-0.807413 2.33842 7.71327 207 163 145
1.29022 2.9365 7.91432 79 89 89
2.07536 1.80056 7.64531 98 115 101
0.924922 4.40827 7.92671 196 173 163
0.254143 1.87058 7.8968 92 94 97
0.490355 2.49592 8.04875 181 174 169
0.203032 1.27804 7.65286 156 128 118
1.68965 2.38012 7.9783 86 96 103
0.385539 5.33551 8.12716 99 104 103
0.309694 2.0953 8.03226 232 202 191
0.885012 -1.14461 7.37591 137 137 119
0.277782 5.4183 8.17762 100 106 102
-0.713381 1.37822 7.56751 154 139 124
0.919306 3.84607 7.97507 124 135 107
-0.756597 3.74656 7.97548 153 134 128
-0.604237 1.55859 7.65092 106 111 100
-0.415008 1.638 7.73251 104 109 100
1.95931 1.86923 7.74808 75 86 92
1.46315 4.76379 7.69883 101 102 94
0.339277 1.97038 8.02028 236 215 206
1.20944 2.88615 7.95692 78 88 91
0.102409 1.81591 7.8489 198 174 161
-0.680478 1.88011 7.72844 216 180 161
0.634352 1.58935 7.99602 161 129 120
1.61847 2.62063 7.93505 130 123 110
-0.742788 1.60503 7.58088 129 122 111
-0.860069 4.90044 7.99388 195 177 167
1.0603 4.66035 7.90272 104 112 101
1.0603 4.66035 7.90272 104 112 101
-0.918456 4.56846 7.83013 108 108 108
0.350819 1.66407 7.85328 108 110 104
0.598957 1.98477 8.03119 103 111 105
0.209412 1.21062 7.66839 111 116 101
0.209913 1.20816 7.67863 113 111 103
-1.72409 3.79915 6.95479 115 118 107
-0.660672 1.84346 7.74352 149 120 114
0.165639 1.87962 7.94894 115 113 108
-1.02277 1.58823 7.28225 187 167 159
2.18505 3.58721 7.69195 105 98 96
0.636939 1.53445 8.01145 131 133 126
0.86562 4.05625 8.04627 113 118 105
0.0753139 1.42086 7.69879 86 89 93
-0.896994 1.81228 7.42913 104 105 101
-1.06339 1.59754 7.25165 128 121 115
-0.394134 1.7158 7.74852 100 106 99
-0.394288 1.71545 7.75163 101 107 100
-0.628303 2.03735 7.80767 197 166 151
-0.627959 2.03748 7.80633 195 164 149
-0.576541 2.53871 8.02717 163 135 127
0.803445 3.39809 7.9964 96 100 99
0.624991 1.88693 8.02804 203 191 184
-1.05018 4.69026 7.75365 134 138 123
-0.985742 4.12209 7.68097 166 156 147
1.49421 3.03171 7.8419 80 89 90
1.51311 2.386 8.05711 106 109 115
0.72842 3.04194 8.0542 102 108 102
0.366636 1.54708 7.81635 107 100 99
-0.135708 1.59477 7.80354 141 127 117
1.8275 4.41848 7.74562 70 80 79
-0.417613 2.34618 8.03345 107 112 105
-0.9601 4.11324 7.72574 121 126 117
1.61879 3.6109 7.92939 79 85 89
0.284369 4.66543 8.11758 152 150 151
-1.52479 1.58912 6.79051 204 185 176
1.23756 4.62834 7.73272 75 81 86
1.23756 4.62834 7.73272 75 81 86
-0.363742 2.00091 7.90425 152 158 133
-0.246288 1.53703 7.74859 111 112 105
0.268019 1.49478 7.75112 169 124 120
0.42494 2.39183 8.04027 188 177 171
0.42494 2.39183 8.04027 188 177 171
-0.0647986 1.88345 7.88579 133 138 124
0.306881 2.17747 8.04828 185 173 168
1.20898 4.60844 7.85238 107 118 103
-1.70186 3.8318 6.96697 104 106 100
-1.70186 3.8318 6.96697 104 106 100
0.256799 1.90238 7.93524 99 101 100
0.590268 3.18984 8.10126 112 117 111
1.1399 4.3276 7.87331 80 92 87
0.326337 2.18646 8.04902 228 206 198
-0.0448288 1.45677 7.75374 101 103 99
1.91433 2.21933 7.85478 126 135 119
0.17392 1.97116 7.97597 178 143 131
-0.922588 2.18902 7.38496 118 117 111
1.64803 2.15542 8.02267 248 245 244
-0.862233 1.57887 7.46432 181 157 146
2.03671 1.5936 7.59217 110 117 102
-0.442145 1.23946 7.60126 101 94 96
1.8018 2.60614 7.85254 120 120 106
-1.42402 3.51534 7.17906 155 146 132
-1.03145 1.40231 7.23106 136 124 113
-0.965444 4.23 7.79761 136 139 127
-1.4135 3.64569 7.28867 198 177 167
0.457538 1.96748 7.99087 189 157 143
-0.68984 2.22435 7.83593 171 151 138
0.831219 3.70846 8.052 90 99 93
0.337719 1.63008 7.83671 102 108 101
-0.822986 2.00118 7.58733 133 121 115
-0.246099 1.73542 7.83628 101 109 102
-0.869579 2.15651 7.52171 106 109 99
-0.0514295 1.57001 7.79698 143 126 120
-0.484802 1.35566 7.63656 150 121 113
-0.0823573 1.42944 7.75303 110 115 110
-0.0820011 1.43298 7.73999 111 113 107
-0.640598 5.4665 8.0693 93 95 100
0.124707 1.83587 7.8738 245 225 214
-0.819873 4.77542 7.96997 125 129 117
1.94203 2.39616 7.85425 94 103 102
1.30848 2.57509 8.06888 243 238 235
1.96581 2.10634 8.02487 97 105 107
-0.451133 1.57631 7.70476 167 140 127
0.62375 1.96191 8.02704 97 102 105
0.624257 1.96046 8.0345 100 105 108
-1.04349 1.50213 7.24646 108 112 101
0.122806 2.56069 8.04809 172 164 159
0.615334 1.70614 8.01617 118 122 115
0.108493 1.55784 7.81054 100 98 97
0.528915 2.08658 8.04413 223 205 198
2.26946 2.10016 7.84845 64 72 84
-0.64656 1.65185 7.65264 138 120 114
-0.607251 2.01658 7.80983 209 178 163
-0.607251 2.01658 7.80983 209 178 163
1.52666 2.70111 7.93179 90 101 96
-0.203352 1.44259 7.70846 155 134 119
-1.57446 4.66555 7.29264 122 123 119
-0.480488 1.55197 7.67946 153 146 122
1.14329 4.88403 7.87819 94 104 98
1.70533 2.1901 8.00269 99 103 110
-0.149735 1.94761 7.92475 104 111 103
-0.669991 1.29759 7.5082 89 88 94
0.754307 5.41207 8.06876 77 87 90
0.0358487 1.61187 7.74992 103 107 105
-0.259088 1.42462 7.71564 97 99 97
0.0355688 2.34766 8.05538 205 189 185
-1.08128 1.39511 7.19678 113 112 102
-1.19026 2.07097 7.091 148 139 122
0.476062 1.60936 7.91811 199 155 139
-0.290285 1.34748 7.67051 98 103 101
-0.290285 1.34748 7.67051 98 103 101
-0.814502 2.02752 7.57005 157 130 127
-0.814502 2.02752 7.57005 157 130 127
-0.147711 1.49938 7.7541 168 144 131
0.432577 1.80415 7.93377 118 121 108
0.632321 1.98544 8.0351 104 111 108
0.102181 1.65721 7.82903 114 108 105
1.76495 4.09459 7.82497 98 104 95
1.89767 2.53822 7.83106 114 121 101
0.439311 1.76745 7.91732 109 113 105
0.233636 1.89054 7.981 170 139 128
0.233636 1.89054 7.981 170 139 128
-0.734413 1.36394 7.51963 98 105 100
0.794349 3.7235 8.03106 79 87 89
0.472034 2.48279 8.05344 199 190 184
0.472034 2.48279 8.05344 199 190 184
1.81899 3.63611 7.85365 64 74 79
0.226704 1.77943 7.97156 145 127 120
-1.21578 4.93179 7.68783 126 119 113
2.15949 1.73443 7.60363 68 74 84
-0.845748 4.92033 8.00702 122 117 113
-0.485299 1.716 7.74208 104 107 101
1.3859 2.61413 8.00756 81 87 91
0.561306 1.99693 8.04006 250 222 208
0.561306 1.99693 8.04006 250 222 208
2.00216 1.90157 7.78419 73 82 91
1.8271 2.14504 7.95655 146 153 136
-0.255365 1.25831 7.61171 160 128 120
-0.535749 1.86388 7.77696 109 117 101
-0.0444014 1.78613 7.88428 125 111 115
1.23428 4.80983 7.80507 137 123 109
-0.465106 2.26805 8.00035 111 118 107
-1.4191 3.49771 7.17716 112 117 105
-0.99328 4.04469 7.63211 119 124 119
-0.414275 2.10079 7.93524 213 186 169
1.61742 4.54483 7.69978 68 78 80
2.28852 3.60345 7.60044 97 105 95
-0.251831 1.93761 7.92687 175 156 144
1.90175 2.57139 7.82717 113 115 100
-0.180239 1.94749 7.92567 103 112 102
-0.281367 1.71776 7.81363 105 111 99
2.15412 2.16823 7.84331 68 81 87
1.81102 4.22501 7.81544 95 107 93
1.80647 1.85301 7.87869 87 90 98
-0.0678563 2.20328 8.05054 251 212 188
-0.561981 1.3435 7.59581 111 115 99
-0.441586 2.04242 7.91124 108 116 105
0.385141 1.77125 7.89239 140 126 117
0.385045 1.77117 7.89324 140 127 118
-0.736769 4.23909 8.05497 126 115 114
-0.629233 4.6856 8.1566 135 136 127
0.80725 3.28281 8.0275 147 140 128
-0.3988 2.09347 7.95574 194 171 160
-0.3988 2.09347 7.95574 194 171 160
2.15493 1.99798 7.77089 68 76 86
2.15493 1.99798 7.77089 68 76 86
-1.44352 3.64177 7.26124 187 166 158
0.641614 2.00224 8.04351 212 205 202
0.641132 2.00234 8.04313 207 199 195
0.179528 1.93418 7.96918 117 120 108
0.323045 1.61776 7.82597 162 124 117
2.0844 1.92436 7.69809 70 78 87
1.81884 3.31342 7.79216 114 108 102
-1.08776 1.41435 7.1745 166 143 131
1.87038 1.74781 7.72817 120 129 107
1.87038 1.74781 7.72817 120 129 107
1.66162 2.28765 7.97699 91 100 107
0.996675 4.60205 7.95471 141 134 122
-0.731271 3.91589 8.02203 168 152 146
-1.49947 2.11056 6.80786 116 119 102
0.309365 1.26274 7.76031 165 129 117
1.23238 3.99215 7.96952 90 93 90
1.49096 3.76011 7.92888 81 90 89
-1.58247 3.62566 7.1738 199 175 165
-0.563704 1.27276 7.56613 89 90 92
0.479623 3.25842 8.09094 127 130 127
1.56756 4.14277 7.87384 83 93 91
-0.153656 1.30317 7.65861 142 119 111
-0.99456 1.48438 7.26749 143 139 123
-0.99456 1.48438 7.26749 143 139 123
-0.567274 1.69826 7.70422 102 109 101
-0.56745 1.69787 7.70655 105 113 105
-1.61849 4.05659 7.13389 115 116 110
-0.38559 2.1533 7.98202 192 166 153
0.537738 5.28357 8.17293 95 101 98
-0.622841 1.53345 7.63622 102 106 100
-0.806672 2.0529 7.61878 223 184 162
-0.80658 2.05295 7.61852 224 185 163
-1.14994 1.57921 7.16106 196 174 163
-1.14983 1.57931 7.16035 195 173 162
0.604405 1.75525 8.02205 200 182 172
1.41083 4.12133 7.90179 87 97 94
-0.839586 2.04451 7.49113 138 118 111
2.09059 2.08843 7.98394 71 81 86
-0.510509 1.83149 7.77962 127 124 114
0.896109 3.4064 8.00268 106 111 104
-1.19037 2.09515 7.09301 153 139 124
-1.19037 2.09515 7.09301 153 139 124
0.207773 4.8547 8.16575 157 156 150
1.46254 2.78794 7.92378 96 105 99
1.82546 3.60993 7.84689 69 80 83
1.3757 4.17259 7.90236 77 87 88
2.20943 2.02968 7.75106 73 79 85
-1.43071 3.39934 7.1233 128 130 111
0.447911 1.73761 7.91414 121 125 120
-0.0437392 2.32466 8.05064 211 196 191
-0.776372 1.59483 7.54136 129 118 112
-1.30873 3.07006 7.15083 150 134 127
0.402012 1.94846 7.97386 161 128 120
-1.1281 3.26565 7.3357 208 181 166
-1.50145 1.64916 6.79364 156 142 129
1.00498 5.06942 7.95114 76 78 87
2.12297 2.0378 7.86712 76 84 89
-0.661819 1.62625 7.63649 143 124 116
-0.509788 1.62013 7.71521 159 129 120
-0.711456 2.94275 7.7881 129 125 121
1.00277 3.09237 8.00354 122 135 113
-0.865555 4.43912 7.95039 130 115 115
0.763433 2.72872 8.07976 222 214 212
-1.2959 2.18147 6.95767 122 122 110
0.567967 1.85116 8.00059 107 116 107
-0.00882414 1.62736 7.80542 105 107 107
1.59393 4.62052 7.68205 88 96 90
1.59393 4.62052 7.68205 88 96 90
0.847159 5.11595 7.99437 72 82 89
-0.435245 1.64085 7.7207 133 124 115
-0.473311 1.49868 7.66661 167 139 127
0.973517 4.94017 7.94001 162 142 140
0.0270047 1.51214 7.7994 98 99 100
2.22611 2.59517 7.67296 105 101 97
-0.648157 1.55263 7.625 127 122 112
1.95432 1.54792 7.59929 87 84 92
-1.64551 2.68514 6.74412 149 142 130
-0.0353545 1.82454 7.86073 100 104 100
0.13643 1.49498 7.73778 123 133 110
2.03431 1.64684 7.62469 68 79 86
0.308899 1.98562 8.03364 223 196 177
-0.432111 1.69352 7.73794 140 128 116
-0.432058 1.69357 7.73744 140 128 116
0.0915371 1.83911 7.86528 237 219 207
-0.741567 2.51253 7.86438 144 119 114
0.971996 3.92769 7.97482 74 80 87
-1.09468 4.63872 7.67897 158 152 132
1.33162 3.32034 7.97443 99 103 98
-0.924012 4.87237 7.84641 121 126 118
-1.30594 1.58435 7.00948 190 168 156
-0.822405 1.93945 7.46091 142 117 112
1.4905 4.48757 7.74725 72 82 81
1.77109 3.33015 7.81793 83 86 88
-0.803459 1.90418 7.62736 130 112 110
-0.803459 1.90418 7.62736 130 112 110
0.418887 1.93673 7.97457 129 131 115
1.12957 3.33461 7.94814 84 93 94
-0.751559 2.74131 7.70313 134 123 116
-1.20891 1.56681 7.11094 132 112 107
-0.811653 2.20811 7.70703 125 119 109
-0.912795 1.7628 7.35636 144 155 116
0.410161 5.33162 8.16999 100 107 108
-0.278691 2.0037 7.92339 170 156 144
1.73889 1.57621 7.98081 94 92 101
-0.948488 4.60161 7.80285 143 145 131
-0.735092 2.57713 7.8802 158 136 132
-0.939005 1.44994 7.32808 146 123 114
-0.904285 2.35905 7.40375 116 115 109
-0.0420357 1.92384 7.91325 160 127 120
-0.702095 1.60312 7.61022 143 118 113
-0.702095 1.60312 7.61022 143 118 113
-0.826724 4.63939 7.94896 157 154 140
0.765853 3.73422 8.03782 82 91 92
-0.66497 1.44303 7.61265 137 107 106
0.434496 1.28967 7.87658 209 173 154
0.0306443 1.91332 7.91417 140 110 109
1.63715 3.46907 7.87875 74 85 85
0.469424 3.6763 8.13361 90 97 99
0.160559 1.74599 7.89816 159 126 121
0.161054 1.74661 7.89512 156 123 117
-1.38658 2.3664 6.90448 141 138 123
-1.38658 2.3664 6.90448 141 138 123
-0.535624 1.96659 7.81217 111 112 103
-1.58571 3.72083 7.10392 149 145 131
0.541876 1.55296 7.96825 211 183 163
0.541876 1.55296 7.96825 211 183 163
1.2903 3.92169 7.96344 124 120 110
-0.638854 2.86645 8.06689 157 137 130
-0.86071 5.00477 7.9982 132 115 116
-1.24481 4.3565 7.57612 140 129 123
-1.24481 4.3565 7.57612 140 129 123
0.0343657 2.18403 8.04552 144 132 126
1.67488 4.71288 7.57408 95 106 95
-0.567793 1.72354 7.72406 117 118 107
1.24535 4.50338 7.83749 132 122 107
1.24535 4.50338 7.83749 132 122 107
1.90114 4.19943 7.78772 59 67 76
-1.31563 4.9018 7.56821 119 120 115
-0.71057 1.72147 7.65385 177 146 131
-0.739842 5.17715 8.15487 168 151 142
1.23463 4.37542 7.84514 79 88 87
-0.362027 1.39494 7.67216 118 116 108
1.76944 1.70008 7.7811 86 92 95
1.62785 2.36724 8.01057 87 96 102
1.78093 2.58962 7.88212 125 119 107
1.78093 2.58962 7.88212 125 119 107
1.84486 1.16224 7.92728 153 138 135
0.134637 1.3245 7.62574 106 109 102
0.26627 2.51142 8.05141 221 203 198
-1.21517 3.69601 7.44974 132 125 117
0.583296 2.00008 8.03475 214 195 187
-0.622816 1.93818 7.76214 140 139 119
-0.0948364 1.32678 7.65489 88 85 92
-1.05874 1.51672 7.22009 148 138 123
-1.04947 1.54168 7.26118 111 112 104
1.86011 1.52841 7.65742 121 126 111
0.0185408 2.80125 8.06345 221 203 196
-0.529478 2.32484 7.98119 111 118 106
1.42802 2.49644 8.07175 202 198 195
1.75524 2.61056 7.88199 118 112 103
1.07927 5.25794 7.91256 85 96 94
0.380288 2.07869 8.04329 204 188 186
0.125964 1.87808 7.93292 178 145 133
0.226554 1.84018 7.9673 155 129 125
2.07802 1.97664 7.82146 100 110 99
2.07802 1.97664 7.82146 100 110 99
-0.630694 1.54945 7.63965 162 150 138
1.69372 1.74465 8.02486 131 116 120
0.00986983 1.68243 7.85489 165 136 130
2.0364 2.01719 7.91584 73 83 91
2.0364 2.01719 7.91584 73 83 91
0.299814 1.1987 7.7565 150 119 112
2.23078 3.11712 7.58136 105 119 95
2.02129 1.54397 7.57196 107 114 102
-0.657442 3.23515 7.99723 201 172 160
-1.36737 1.81666 6.85972 144 153 125
-0.689162 2.20056 7.83778 123 119 114
-0.785189 4.0629 7.91173 136 123 121
0.242915 1.93009 7.99893 113 114 107
1.70403 3.57297 7.8585 66 75 81
1.70263 3.57258 7.84767 67 80 85
-0.593167 5.4735 8.17332 128 111 110
0.139328 1.69688 7.87656 168 151 144
-0.455362 1.76765 7.7583 103 107 102
-1.28896 4.88148 7.58103 143 149 127
-0.505782 1.77862 7.76033 144 149 135
-0.81599 4.26951 7.93292 161 159 144
-1.23278 5.01571 7.72448 209 184 176
-1.23278 5.01571 7.72448 209 184 176
0.643462 4.01426 8.12778 128 126 126
0.0342576 2.26634 8.04942 179 166 164
-0.814061 4.36656 8.02946 178 157 145
-0.781002 2.42655 7.77407 142 120 117
0.0936176 1.54336 7.81252 184 152 141
0.148637 1.6255 7.85441 148 137 127
2.0082 1.86993 7.71447 101 119 105
1.36087 2.51325 8.07887 151 150 148
-0.202251 1.50625 7.74574 110 114 107
0.14485 1.75238 7.89477 191 152 140
1.47555 3.51029 7.95074 101 108 95
1.47555 3.51029 7.95074 101 108 95
0.115477 1.57655 7.8175 163 129 126
1.7844 4.51712 7.68766 163 136 123
-1.15456 4.46863 7.68559 151 133 129
0.742945 3.83384 8.07049 87 94 95
1.73414 2.24387 7.92582 138 148 127
1.99038 1.81211 7.69968 80 82 90
1.49075 3.56603 7.95026 137 129 116
1.49075 3.56603 7.95026 137 129 116
-1.13637 1.56978 7.17736 127 114 107
-0.459766 1.45544 7.65735 178 152 135
-0.670144 1.67338 7.65382 114 113 105
2.10524 1.98776 7.80645 97 110 101
1.96253 3.16832 7.70108 75 86 87
0.293624 1.97158 8.04286 117 125 114
-0.040385 2.28077 8.05183 235 201 184
1.40767 4.7435 7.71564 93 104 95
1.65773 3.44875 7.85812 83 94 90
-0.655707 1.6671 7.66253 190 164 151
1.25581 2.92159 7.9585 97 106 101
1.25581 2.92159 7.9585 97 106 101
-1.2827 3.43901 7.28576 132 126 114
-1.37664 2.43613 6.92933 108 116 99
-1.37664 2.43613 6.92933 108 116 99
-0.710102 4.53776 8.11214 117 114 114
-1.34357 2.13229 6.94036 121 122 110
1.29096 3.12333 7.9457 73 84 87
1.52664 3.57507 7.93539 88 96 91
-0.840462 1.35909 7.40812 104 109 104
-0.808376 1.55158 7.48503 135 120 112
1.09282 3.98708 7.95183 113 122 105
-1.38872 3.31177 7.1369 128 130 117
-1.38872 3.31177 7.1369 128 130 117
-0.992456 5.15761 7.8937 164 155 140
-0.0319263 1.51668 7.78384 136 123 114
0.477698 4.81964 8.11132 133 150 121
0.492917 2.38583 8.04674 202 189 184
-0.578533 2.38337 7.9772 147 139 129
-0.715689 2.71521 7.94958 157 130 124
0.276128 1.91538 8.00227 136 126 118
1.92975 4.58634 7.63228 137 118 107
-0.716276 3.96752 8.0638 147 130 128
0.0825981 1.87584 7.92753 149 123 123
-1.29455 4.94889 7.6335 145 125 121
-0.521507 2.36053 7.99552 195 173 161
-0.521507 2.36053 7.99552 195 173 161
0.149314 2.42128 8.04956 180 172 172
1.47467 2.84387 7.87554 113 126 105
2.06817 1.97576 7.863 77 81 89
1.99175 2.74066 7.71791 106 111 102
0.38425 2.27111 8.05607 232 205 194
1.39677 4.26221 7.85469 64 76 81
0.977577 4.1005 8.02645 122 131 109
1.52085 3.97475 7.89321 104 116 98
0.942623 3.87344 7.98297 109 118 110
-0.125879 1.50458 7.77068 112 118 110
2.32407 3.67592 7.63647 86 100 88
0.761712 5.06674 8.06165 133 125 119
0.546635 4.04965 8.12997 109 113 110
-1.31299 3.6612 7.36831 177 153 145
0.12379 1.78757 7.87141 249 227 210
2.13306 1.98301 7.78031 72 81 86
-0.507846 1.69438 7.73385 131 118 110
0.61196 3.36334 8.07034 95 100 97
-0.148917 2.09143 7.97063 120 121 112
-0.391904 1.45221 7.69009 121 115 110
1.97261 4.37551 7.72804 93 107 90
1.80948 4.06898 7.82544 102 116 96
1.80948 4.06898 7.82544 102 116 96
0.850346 3.50274 8.00354 164 151 148
-0.704419 4.30481 8.1525 138 139 128
-0.939006 -0.587964 6.91886 164 150 136
-0.656809 1.46658 7.61806 178 148 134
-0.0857246 1.45995 7.75884 105 110 106
0.265464 4.95362 8.16794 115 123 114
0.265464 4.95362 8.16794 115 123 114
0.265464 4.95362 8.16794 115 123 114
2.31166 2.40567 7.66207 71 78 83
2.31166 2.40567 7.66207 71 78 83
-1.5025 3.7783 7.15903 140 143 126
2.22724 2.05237 7.69216 71 82 83
0.151749 1.42274 7.66112 133 143 114
-1.31769 5.00771 7.64553 125 114 114
-0.417387 2.03155 7.91067 109 118 105
0.769186 3.17776 7.9533 124 133 113
0.393477 1.80405 7.9088 148 125 120
0.393946 1.80137 7.9211 150 127 123
-0.535346 1.50128 7.6581 155 141 127
-1.39097 4.83278 7.51716 149 136 126
-0.171781 1.41601 7.72366 122 119 110
0.18731 1.35626 7.66713 116 118 109
-1.20287 1.58093 7.11856 196 176 164
-1.20287 1.58093 7.11856 196 176 164
-0.962818 3.57722 7.63275 146 149 126
0.0386946 1.44179 7.72662 111 100 102
-1.10653 1.83789 7.11908 143 151 116
-0.682129 2.37585 7.90076 135 117 115
0.66182 1.9363 8.04954 201 196 194
-1.06629 3.6892 7.63771 174 146 137
0.198996 1.31682 7.66424 154 129 118
-0.832747 4.72917 7.93143 122 125 120
0.491105 5.16855 8.17639 118 124 120
0.491105 5.16855 8.17639 118 124 120
0.547386 1.88359 7.99972 117 122 112
0.489518 1.86891 7.97294 116 114 112
2.13069 2.93365 7.60963 70 78 82
0.175212 1.52031 7.74326 127 135 117
0.489398 4.29037 8.13426 126 129 124
-0.136747 -1.29062 6.82876 125 112 100
2.38702 3.91622 7.60758 78 89 84
1.20052 4.36512 7.85442 81 91 88
-0.468354 2.31482 8.0147 107 111 108
-0.844809 5.30332 8.02444 169 143 136
0.0139151 1.65232 7.83048 100 99 102
1.95455 1.7523 7.70841 75 83 90
1.95455 1.7523 7.70841 75 83 90
1.16 5.00603 7.90496 116 122 104
2.04292 2.03245 7.9331 105 115 105
-0.952549 4.07197 7.70392 147 149 136
0.0720559 2.37392 8.06066 204 192 188
0.533037 1.966 8.00781 155 144 129
1.97038 3.4549 7.7082 78 86 84
-0.41434 1.99634 7.89641 138 130 117
0.63753 3.42483 8.04121 130 130 110
1.97403 3.50851 7.7197 144 127 118
-0.745322 4.36471 8.11844 184 163 154
-0.797748 1.88926 7.61951 168 138 129
0.494826 3.62172 8.10255 133 141 121
-1.46478 3.498 7.14336 122 125 114
0.0288526 1.47281 7.75794 89 89 97
-1.6427 3.24432 6.90762 133 132 117
1.15604 3.0087 7.99921 117 120 112
1.27827 2.53527 8.04709 189 182 182
1.54201 2.32101 8.06582 193 186 186
0.695897 3.05433 8.10776 163 159 154
-0.39614 2.41721 8.06465 103 110 103
0.261416 2.33505 8.05785 184 165 153
-0.667838 2.56285 7.96544 160 138 132
-0.645803 2.79454 8.04391 164 142 137
1.57323 3.43107 7.89023 123 135 114
1.77875 2.75771 7.78391 81 92 92
1.69064 3.15921 7.82703 92 107 96
0.248062 -0.0476739 7.40639 107 103 105
1.9691 2.39358 7.83866 105 110 100
1.30958 3.32729 7.9717 144 136 137
1.49301 2.31286 8.04729 205 194 193
2.06504 5.57119 49.8113 177 164 156
1.87775 3.58127 7.78146 88 100 96
1.24927 2.61523 8.06845 160 155 155
1.33755 2.55816 8.06482 155 151 150
1.70975 3.43186 7.85202 80 91 89
0.76151 2.89822 8.08197 170 166 162
0.327687 1.21186 7.77656 152 126 116
1.49416 2.28435 8.04782 116 122 111
0.327264 2.18626 8.04629 223 201 191
1.53493 2.16429 8.04245 201 189 186
1.40428 2.49887 8.05663 99 107 105
1.54758 2.40187 8.02496 122 131 113
1.29563 3.50648 7.975 148 134 122
0.772292 2.74964 8.0762 111 116 116
1.57783 3.25297 7.88968 86 95 94
0.667689 4.08104 8.14766 105 108 110
0.67037 3.25143 8.08281 93 96 96
1.54371 2.35257 8.04521 179 174 172
-0.396661 2.09346 7.95024 200 176 165
1.4919 2.3434 8.05078 113 118 114
1.47461 3.85309 7.91722 98 102 97
1.27974 2.55559 8.04841 211 195 191
0.139997 2.66709 8.04779 223 185 165
1.75846 3.31603 7.813 115 115 107
0.170846 2.60451 8.04936 228 186 168
0.0137895 2.26712 8.04618 216 197 189
0.0144638 2.26708 8.04433 225 207 199
1.64951 3.14386 7.83011 96 107 97
1.38568 3.55457 7.9658 97 106 99
1.30126 4.45669 7.82423 94 110 101
-0.102765 2.2086 8.0449 246 213 192
1.16958 3.2993 8.01719 95 101 101
-0.290582 1.96776 7.92124 178 162 147
-0.290582 1.96776 7.92124 178 162 147
0.640409 1.62654 8.01751 148 123 118
0.482453 1.62917 7.93052 190 150 132
0.193749 2.09265 8.03294 248 218 197
-0.835735 1.47615 7.44161 112 116 105
-0.570529 2.4512 8.012 130 130 122
1.76631 4.26565 7.82054 139 117 107
-1.54134 3.60037 7.16258 116 123 110
0.325038 2.08374 8.04143 221 188 176
0.325038 2.08374 8.04143 221 188 176
0.0378004 1.87931 7.91308 129 112 112
0.0320022 2.36635 8.05335 201 184 181
2.01345 1.50737 7.5799 72 82 87
0.320937 4.25983 8.12274 158 154 149
0.621939 1.83844 8.0246 212 196 188
1.8029 2.00791 8.03324 92 101 99
1.41188 2.79953 7.93266 85 93 92
0.427685 2.29315 8.02015 222 203 192
0.427685 2.29315 8.02015 222 203 192
1.74926 2.57787 7.89823 124 115 107
-0.432534 1.80073 7.77744 143 143 124
0.254355 2.14466 8.04532 245 208 186
0.137741 2.51895 8.04709 173 163 158
-0.898204 2.56524 7.45216 116 120 109
0.415476 2.24222 8.06157 212 187 177
-1.14268 4.26897 7.61294 165 153 139
-0.343935 1.37285 7.66632 148 126 116
0.158496 1.80789 7.92002 188 166 162
-0.966066 1.43216 7.29195 137 141 119
0.421791 1.78079 7.9212 162 131 121
1.96796 3.30182 7.69679 111 121 100
0.57264 1.20118 7.98768 161 138 127
0.259342 2.32149 8.05301 183 164 155
-0.260802 1.90008 7.91334 148 129 122
1.56533 3.39731 7.89245 90 98 94
-0.679595 1.87948 7.72608 219 183 163
-0.80693 1.33526 7.44864 137 140 116
-1.23181 3.87439 7.42535 122 123 112
-0.913223 2.17224 7.44148 143 130 122
0.53761 2.17076 8.05532 178 161 151
0.648165 1.8048 8.01874 196 185 179
-0.0780682 1.24016 7.59343 155 120 112
-0.364536 1.34594 7.6566 100 108 99
0.42923 3.57916 8.11769 154 154 151
-0.985082 4.35901 7.8561 123 124 118
-0.661766 1.79644 7.70593 129 114 114
-0.735482 2.05237 7.71558 170 140 132
1.94929 2.73525 7.72846 110 116 99
1.21624 2.99816 7.96866 91 102 96
0.626083 1.13171 7.99845 213 183 163
-1.30894 2.13527 6.96235 117 121 105
-0.618937 2.28962 7.91997 121 122 109
2.07417 1.78038 7.61834 103 121 103
-0.0445495 1.7884 7.87213 120 106 108
1.90549 2.07816 8.05269 207 200 199
2.17687 3.69115 7.67035 102 114 95
-0.624824 1.87968 7.75112 192 163 145
-0.699031 2.71143 7.96461 178 152 140
-1.41251 3.06401 7.05844 141 129 119
0.438257 2.31532 8.01791 188 169 159
1.93663 2.08284 8.03878 186 178 178
-0.523382 2.42529 8.01326 210 186 173
-0.661673 2.86275 8.06753 128 121 115
0.932814 4.42296 7.95747 223 200 183
0.402595 4.04934 8.13511 110 117 112
1.24018 3.14778 7.98597 82 89 92
0.446402 2.12617 8.04375 225 195 183
1.67275 2.99061 7.8238 84 90 89
0.523408 1.7878 7.9761 123 125 113
0.0343657 2.18403 8.04552 144 132 126
0.380449 1.78936 7.90112 101 105 102
2.33123 2.24945 7.73075 118 114 104
1.50542 2.75829 7.91107 117 121 107
-1.32282 2.23782 6.96377 127 127 112
-0.291954 1.88531 7.876 107 106 101
-0.622748 1.9383 7.76194 149 148 128
2.3441 2.30765 7.67498 67 76 80
0.389911 1.91464 7.95596 168 133 120
1.53726 2.57213 7.99534 95 106 99
-1.1442 3.86935 7.47654 134 138 121
-0.630622 1.61564 7.64544 139 133 123
-0.630622 1.61564 7.64544 139 133 123
0.681178 4.37974 8.02717 132 114 106
0.940716 2.91013 8.06071 126 124 116
0.607028 1.89727 8.02422 109 106 103
2.19681 3.57359 7.67771 81 83 86
0.679452 1.62398 8.01221 220 206 202
-1.49207 3.87519 7.19692 138 136 121
-0.272331 1.56794 7.75105 110 111 105
1.41958 4.35257 7.84414 126 118 105
0.421232 1.75946 7.9121 156 131 125
1.00298 3.09233 8.00899 118 132 111
0.247113 1.54248 7.74255 160 139 125
0.636581 1.90495 8.03401 134 132 128
-0.137422 1.48344 7.75153 112 116 102
-1.50233 3.77883 7.15886 145 147 130
2.37776 2.22261 7.71483 101 110 94
0.48852 1.79689 7.96348 155 143 133
-1.1779 2.24997 7.09117 140 141 125
0.375237 2.40944 8.04943 182 173 165
-0.876574 1.36222 7.40123 160 139 120
2.03994 1.93991 7.79062 71 79 85
0.981497 4.16587 8.02045 199 175 156
0.981497 4.16587 8.02045 199 175 156
-1.50321 2.21223 6.79221 149 142 127
0.398911 1.79714 8.00012 144 118 113
-1.03264 3.52012 7.61991 125 129 113
1.91695 3.48776 7.80785 106 107 96
0.292221 1.84342 7.99565 96 104 98
-0.837658 1.10718 7.40214 101 103 96
1.38653 3.3174 7.99872 86 94 90
-1.50323 1.16847 6.76447 96 103 91
0.593742 1.93758 8.01581 105 109 106
0.632994 1.76374 8.03861 221 204 195
-0.0237648 1.39976 7.6614 91 94 94
-0.0190621 1.3983 7.66921 90 93 93
1.83654 1.34534 7.92257 128 100 103
-0.738247 1.13402 7.42248 138 114 103
-0.702194 1.27837 7.50591 97 103 94
-0.700394 1.28031 7.49429 93 99 92
1.23225 3.23919 7.96714 226 206 194
1.23225 3.23919 7.96714 226 206 194
-0.438119 2.32897 8.03978 93 102 96
0.0963266 1.68945 7.84843 94 100 97
-0.543975 1.7976 7.73601 103 111 99
-0.886704 1.09903 7.40443 95 101 90
-0.0218283 1.12862 7.50466 115 120 104
-1.14323 3.07875 7.29933 115 110 101
-0.22655 1.89803 7.89738 93 100 94
-0.724483 0.585785 7.24101 100 109 96
-0.0435842 0.672724 7.48242 193 158 138
-0.0435842 0.672724 7.48242 193 158 138
-0.287658 2.26835 8.0813 107 116 104
1.90801 1.1862 7.88687 84 85 97
1.56285 2.50752 7.97812 102 106 101
1.90801 2.11973 8.05139 84 90 94
-1.14572 0.863172 7.10404 144 110 101
-0.820862 0.596532 7.2318 119 122 103
-0.694498 1.73064 7.64774 173 146 131
-0.694498 1.73064 7.64774 173 146 131
-1.31524 1.68961 6.9697 126 127 107
-0.821947 1.07939 7.36915 100 107 94
-1.66871 1.09902 6.63271 101 107 90
-1.73006 1.22089 6.56555 99 103 94
-0.711381 1.54636 7.52932 117 109 101
-0.924315 0.947077 7.25031 86 95 87
-0.84851 3.76804 7.85655 126 120 111
-0.608085 2.08336 7.85423 125 106 106
-0.903886 0.731817 7.23452 93 102 89
0.621508 0.657817 7.66178 101 108 99
0.226853 2.39363 8.00957 170 158 154
-0.253515 1.03695 7.52729 150 108 101
0.470255 4.15248 8.18818 158 145 145
-0.193486 0.465432 7.33734 87 97 90
-0.197963 1.75249 7.86886 100 106 98
0.0479537 1.38626 7.65384 147 114 107
0.363621 3.71743 8.11469 108 113 105
-0.263069 1.49648 7.72505 171 134 120
0.907945 3.65786 8.01712 111 126 103
0.907576 3.65731 8.01457 111 126 102
-1.62169 1.53857 6.71845 109 109 95
0.443294 0.525515 7.55804 136 113 108
-1.5597 3.10836 6.94359 171 139 125
-1.5597 3.10836 6.94359 171 139 125
-0.466738 2.40949 8.07518 117 124 106
-0.355997 1.13986 7.50868 131 121 108
-0.0595613 0.621796 7.47127 175 147 132
-0.0600871 0.622155 7.47048 177 148 133
-0.774806 0.656751 7.22911 100 108 95
-1.76665 1.12957 6.53814 117 108 101
-0.23217 0.477306 7.33352 189 147 127
-1.3701 1.34017 6.84644 127 130 112
-0.847865 0.77042 7.24063 99 100 92
-0.592964 0.482435 7.24775 119 125 99
-0.332169 1.20466 7.59788 96 102 93
-0.339821 0.427519 7.27605 94 106 96
-0.0190531 1.94176 7.92434 101 107 100
-1.03173 2.13306 7.2778 106 108 98
-0.71091 0.652515 7.25929 94 105 93
-0.331044 0.396529 7.27369 158 130 115
2.0568 1.7983 7.66939 74 77 86
-0.491566 0.857359 7.37462 95 104 95
1.88387 2.31699 7.88061 89 98 95
-0.386176 1.60179 7.74154 97 104 98
-0.701246 3.72052 8.07909 214 189 175
-0.530835 0.813493 7.31903 177 144 127
-0.90269 1.52084 7.37184 150 141 125
-1.47927 1.09366 6.78759 134 126 112
0.0404508 0.560689 7.38801 97 106 94
-1.09365 3.16483 7.3905 128 112 107
-1.11687 0.554283 7.09326 96 104 91
-1.11687 0.554283 7.09326 96 104 91
-0.690344 0.610502 7.2607 96 108 96
0.406848 0.7696 7.59961 83 92 92
0.82626 4.28114 7.96884 178 146 131
1.76629 2.9405 7.78103 109 110 103
1.76629 2.9405 7.78103 109 110 103
0.764186 0.727058 7.87521 104 114 107
-1.32544 0.488158 6.96476 177 151 139
0.509502 3.24913 8.09846 149 148 144
-0.560141 1.95382 7.79734 168 147 133
-0.560141 1.95382 7.79734 168 147 133
-1.48677 0.842454 6.81831 134 129 112
-1.48677 0.842454 6.81831 134 129 112
-2.16564 1.01998 6.16948 95 93 92
1.46542 3.27016 7.93939 117 122 102
-1.12177 3.99776 7.56458 119 117 104
-1.12177 3.99776 7.56458 119 117 104
0.633867 0.931874 7.8127 158 130 125
-1.12076 0.621319 7.09936 110 114 100
-0.420098 0.658767 7.31358 96 107 94
-0.700558 4.26751 8.1519 102 109 105
-0.915904 0.857205 7.24184 177 133 120
-0.916038 0.857374 7.24182 178 134 120
0.271949 1.69323 7.86245 96 103 95
-0.0434141 0.947171 7.50754 159 138 120
0.386858 1.87825 7.94367 176 138 125
1.03423 3.92238 7.92262 75 85 86
-1.03446 1.10206 7.21901 130 133 111
-1.03441 1.10196 7.21902 128 132 110
0.501076 3.42765 8.09605 140 141 139
0.510915 4.47964 8.07536 73 80 85
-0.728952 1.91572 7.70462 144 117 109
-1.58139 0.790424 6.71272 141 136 119
0.361766 2.4146 8.04524 174 163 156
-1.58117 1.11877 6.70826 170 147 138
-0.621753 0.911452 7.35473 98 105 95
0.193221 1.03158 7.68024 155 132 119
-1.72883 0.818632 6.58246 112 112 100
-1.72883 0.818632 6.58246 112 112 100
-1.84623 0.602755 6.53444 180 155 146
-1.4284 1.12126 6.81978 98 103 91
-2.0917 0.792379 6.29309 163 138 129
-0.223049 2.18903 8.02381 107 109 101
1.22638 3.74873 7.98499 118 119 105
-1.13738 0.603134 7.0825 138 124 107
0.904083 0.470027 7.75442 124 126 116
1.84322 2.72517 7.75726 70 79 84
-0.765204 2.70165 7.70318 136 117 110
-1.72296 1.82513 6.59138 101 105 95
-0.894328 4.00736 7.76631 146 138 128
-0.159601 1.73415 7.84846 178 141 126
-0.80033 1.00872 7.35316 94 104 94
-0.419787 1.66968 7.74244 97 104 98
-0.419602 1.66951 7.74347 96 103 96
-0.69189 0.442778 7.23254 97 107 95
-1.08725 0.454664 7.09704 100 106 94
-0.181097 0.810378 7.38987 107 112 97
-0.807411 2.45231 7.66091 175 147 136
-0.532117 2.86156 8.079 116 120 111
0.716094 0.987934 7.92136 174 148 137
-1.1881 0.624286 7.05824 150 117 107
-1.33461 0.46185 6.96575 146 125 112
-0.361407 1.56091 7.69694 156 125 115
0.248096 1.01204 7.68713 101 108 99
-0.568031 1.91012 7.76621 95 105 93
-0.568031 1.91012 7.76621 95 105 93
1.80452 1.95661 7.95912 84 91 96
-1.78317 1.66268 6.59696 100 102 92
-0.843631 0.652295 7.23179 112 112 97
-1.82913 0.638058 6.54453 192 166 154
-1.82913 0.638058 6.54453 192 166 154
-0.193957 1.92923 7.9182 157 130 119
0.302507 0.783342 7.55256 112 118 104
-0.514368 1.96149 7.84609 147 149 133
-0.142295 0.755701 7.4012 103 109 92
1.56149 2.65425 7.92612 75 85 88
-1.17584 1.06389 7.07949 159 145 128
-1.90899 1.18743 6.41249 94 100 90
-0.19739 1.26459 7.62423 155 118 109
0.423716 2.17524 8.04321 171 153 144
0.338041 0.759862 7.57434 85 91 91
-1.01248 0.675144 7.16996 97 108 92
2.07558 0.68265 7.68186 115 110 106
0.593758 3.26982 8.09995 82 89 92
-0.126185 0.920137 7.43647 196 156 136
-1.25596 0.884252 7.01881 148 140 122
0.633173 1.55656 8.03129 237 223 218
-0.656385 0.981532 7.36471 96 107 95
-0.337454 0.780411 7.33848 134 118 109
-0.338101 0.779238 7.34401 139 125 111
0.497877 0.64608 7.56538 151 131 120
2.0495 1.2031 7.49044 76 80 89
-0.96743 3.91334 7.66985 158 139 128
0.714068 0.962008 7.87108 110 103 102
2.09139 0.818529 7.74556 93 96 96
2.09139 0.818529 7.74556 93 96 96
1.83389 2.32774 7.91763 79 88 90
-1.55062 1.33863 6.71385 93 104 92
0.154416 1.67633 7.87851 106 105 101
-0.321091 0.619565 7.30969 122 126 104
-0.802533 1.15483 7.37381 84 89 87
2.28903 0.409883 7.37055 108 98 102
-0.957112 1.32093 7.31013 92 99 91
-1.69995 1.51163 6.62308 142 134 119
-0.411913 0.754781 7.31008 121 131 102
-1.53267 1.25539 6.7039 141 133 117
-0.0929152 1.35264 7.69224 89 90 90
-0.882336 0.782074 7.23669 182 134 119
1.55483 2.92374 7.86156 71 80 82
1.55483 2.92374 7.86156 71 80 82
0.173445 1.93824 7.96771 116 118 107
-1.05043 0.417099 7.11529 94 102 93
-1.05013 0.417248 7.11466 90 97 90
-1.82172 1.31771 6.46938 139 130 116
0.908359 3.78664 8.01363 110 117 98
0.583453 3.12487 8.11147 150 149 146
-1.33356 0.600138 6.96582 114 113 101
-1.72205 2.93235 6.7154 93 93 89
-0.755883 1.75567 7.61833 106 109 96
-1.22203 0.474592 7.03933 158 147 130
-0.67328 0.57168 7.25767 94 104 93
-1.05672 0.450082 7.12144 95 105 93
-0.200965 0.911973 7.40674 97 108 96
1.15931 2.81378 7.97801 76 83 89
-0.0133832 0.88396 7.55846 175 135 119
-1.23478 0.497899 7.04151 120 115 104
-0.965456 0.891012 7.23327 132 123 105
0.163977 1.54148 7.80197 92 98 96
2.34996 2.77006 7.58229 99 95 93
1.83111 0.554965 7.96166 92 93 103
-2.6043 0.869343 5.70811 148 125 119
-0.463063 1.11009 7.47899 145 111 106
-0.899576 2.25124 7.49705 150 132 123
-0.510879 0.808963 7.35099 97 106 96
-1.05669 0.523673 7.12439 97 104 92
0.657291 1.07945 8.00023 210 180 158
0.570443 4.03268 8.15364 109 112 109
-1.02379 0.442502 7.13504 97 108 93
-0.218139 1.82752 7.86441 94 99 94
-0.21944 1.82656 7.86859 92 98 93
-1.03635 0.490176 7.12555 98 107 94
1.05634 4.26292 7.96867 181 169 155
-0.772056 2.49986 7.79971 146 124 119
2.08842 0.567498 7.62964 98 109 101
0.726028 0.934936 7.85352 148 139 128
-0.142233 1.21073 7.56446 101 103 96
1.7107 1.9107 8.01205 102 106 104
0.191865 0.629862 7.44881 118 117 102
0.0707265 0.619874 7.41168 134 131 113
0.756935 2.8998 8.08084 165 161 158
-0.727045 1.18809 7.47126 102 106 96
1.86458 2.18963 7.94544 72 82 89
-0.915238 2.24026 7.43949 103 106 97
0.0276284 0.807335 7.56291 92 98 91
0.596255 2.29562 8.04367 203 188 182
0.596255 2.29562 8.04367 203 188 182
-2.09015 1.12332 6.23672 155 131 123
0.895387 0.297532 7.7713 141 131 126
0.896237 0.295116 7.7817 140 130 125
0.711274 4.23041 7.98132 98 110 95
-1.68577 1.19775 6.58814 140 141 120
-1.91134 1.21192 6.39696 136 131 116
0.0703632 0.814431 7.58039 99 108 97
-0.944208 1.01575 7.26838 93 98 92
-0.490201 1.11983 7.49737 94 96 93
-0.490201 1.11983 7.49737 94 96 93
-0.358253 0.925773 7.41043 98 105 95
-0.0297151 1.35841 7.60713 138 142 122
-1.52775 1.51383 6.76519 100 102 94
-1.0164 0.763977 7.18124 104 109 95
-0.0390238 0.607819 7.43268 91 99 91
-1.44096 1.32187 6.77324 135 135 116
-1.63942 1.18693 6.63211 144 133 120
-0.0323956 1.1441 7.49899 101 107 95
-1.04596 0.748393 7.16375 99 107 93
-1.6911 0.87797 6.59322 156 135 123
-0.374795 0.61199 7.3065 96 109 93
1.50902 2.86218 7.85375 69 80 85
-1.14347 0.505825 7.07593 95 102 91
-1.14357 0.505733 7.07647 98 106 94
2.20593 1.86244 7.67234 74 78 83
-1.45946 1.09568 6.8163 115 112 99
-0.25274 0.934677 7.41459 121 125 101
-1.63403 1.35668 6.63912 117 118 100
-0.832145 0.688478 7.22865 180 134 120
2.07305 1.20455 7.46951 117 111 105
-1.76767 1.18897 6.5259 94 99 90
-1.76767 1.18897 6.5259 94 99 90
1.9559 0.818831 7.88687 106 106 107
-0.439434 0.850962 7.36664 147 119 108
-0.390012 0.823681 7.36085 148 116 106
-1.68767 0.851102 6.58955 93 98 86
2.09532 0.775989 7.71737 158 143 136
2.09532 0.775989 7.71737 158 143 136
-0.248725 0.498283 7.31864 99 103 92
-1.15011 0.576533 7.07857 106 110 96
1.80086 2.72779 7.78962 119 120 109
1.80086 2.72779 7.78962 119 120 109
-1.84651 0.645323 6.53247 141 120 110
-0.91825 2.95408 7.52029 106 108 100
2.14289 3.51144 7.64976 100 104 93
-0.42204 1.22887 7.57999 144 108 102
-0.519252 1.60283 7.71184 102 108 98
0.518924 0.489668 7.64592 138 120 114
2.05784 0.851043 7.74927 90 91 94
2.39135 1.21803 7.33392 73 84 82
-0.942492 1.65008 7.32894 138 135 117
-1.27375 3.08647 7.19039 181 154 140
1.08139 3.16849 7.97588 74 82 86
-1.78731 2.73273 6.62607 89 93 89
-1.08997 0.554914 7.1064 99 105 94
-1.54986 1.38478 6.70945 100 102 93
-1.83216 1.02085 6.47706 121 115 103
-1.83216 1.02085 6.47706 121 115 103
0.0847658 0.895446 7.61103 162 138 129
-0.682663 0.528724 7.24236 101 112 95
-0.380592 1.54387 7.70953 93 100 94
-1.64242 0.669616 6.68472 121 113 102
-1.64242 0.669616 6.68472 121 113 102
-1.50987 1.05754 6.77499 133 131 114
0.658505 3.18944 8.07998 167 150 136
-1.31227 0.607614 6.97178 156 139 122
0.613701 1.53968 8.00135 207 195 188
2.03968 1.44701 7.54054 78 87 89
0.227063 0.447379 7.42038 136 122 107
-0.720258 1.09595 7.42178 132 115 103
-1.43184 1.24258 6.80052 132 134 116
-0.131118 0.967727 7.44929 104 105 99
-0.0831966 1.11487 7.57305 164 144 127
-0.0480476 0.835235 7.51707 153 132 114
-0.553867 0.940953 7.38889 96 106 93
-0.658874 0.591339 7.26213 149 135 114
-1.92831 1.22353 6.38476 88 92 86
1.98564 0.817041 7.86113 95 95 101
1.98273 0.818241 7.85664 94 95 99
-0.313188 1.93804 7.88849 168 144 136
-0.953327 0.544981 7.17271 100 109 95
-0.953327 0.544981 7.17271 100 109 95
0.186421 1.75039 7.90866 179 153 141
-0.415372 0.84206 7.36095 142 111 104
0.261175 1.99509 8.0203 109 115 107
-0.777952 0.84295 7.28893 91 103 92
-0.0583902 1.77577 7.85448 162 132 123
0.775595 1.03875 7.99605 218 204 200
-0.424899 0.916649 7.39911 95 104 92
-0.0668965 0.437557 7.3281 124 133 107
0.298696 1.06702 7.69509 97 105 98
-1.65335 1.449 6.64091 135 131 113
2.07619 0.761768 7.73273 90 93 92
